# x y z
3.9907 4.0019 1.5028
999.0000 999.0000 999.0000
999.0000 999.0000 999.0000
999.0000 999.0000 999.0000
1.7815 1.7790 -0.3921
1.6796 1.6761 -0.2862
1.6689 1.6648 -0.2025
1.6607 1.6555 -0.1207
1.6561 1.6498 -0.0401
1.6770 1.6770 0.0407
1.6601 1.6589 0.1208
1.7157 1.7139 0.2085
4.0100 4.0030 0.6906
4.0089 3.9991 0.8902
4.0270 4.0158 1.0972
999.0000 999.0000 999.0000
4.0129 3.9961 1.5059
999.0000 999.0000 999.0000
999.0000 999.0000 999.0000
2.8509 2.8291 -0.7725
1.7989 1.7839 -0.3946
1.6925 1.6772 -0.2874
1.6662 1.6506 -0.2015
1.6693 1.6525 -0.1209
1.6619 1.6440 -0.0401
1.6899 1.6782 0.0409
1.6744 1.6616 0.1214
1.7287 1.7149 0.2093
4.0268 3.9918 0.6911
4.0200 3.9823 0.8895
4.0438 4.0045 1.0980
999.0000 999.0000 999.0000
4.0158 3.9712 1.5017
999.0000 999.0000 999.0000
999.0000 999.0000 999.0000
2.8580 2.8164 -0.7717
1.8262 1.7984 -0.3993
1.7054 1.6782 -0.2886
1.6720 1.6448 -0.2015
1.6822 1.6537 -0.1214
1.6719 1.6424 -0.0402
1.6958 1.6723 0.0409
1.6915 1.6669 0.1223
1.7460 1.7200 0.2107
4.0464 3.9833 0.6920
4.0395 3.9738 0.8908
4.0564 3.9890 1.0976
999.0000 999.0000 999.0000
4.0283 3.9558 1.5012
999.0000 999.0000 999.0000
999.0000 999.0000 999.0000
2.8790 2.8174 -0.7747
1.8297 1.7893 -0.3986
1.7169 1.6778 -0.2896
1.6791 1.6403 -0.2017
1.6794 1.6394 -0.1208
1.6833 1.6421 -0.0403
1.6973 1.6622 0.0408
1.7059 1.6694 0.1229
1.7691 1.7306 0.2128
4.0631 3.9719 0.6925
4.0618 3.9679 0.8927
4.0703 3.9748 1.0976
999.0000 999.0000 999.0000
4.0434 3.9431 1.5017
999.0000 999.0000 999.0000
999.0000 999.0000 999.0000
2.8888 2.8073 -0.7747
1.8558 1.8021 -0.4030
1.7213 1.6704 -0.2894
1.6920 1.6414 -0.2025
1.6779 1.6266 -0.1203
1.6948 1.6418 -0.0405
1.7117 1.6646 0.0410
1.7089 1.6606 0.1227
4.0846 3.9679 0.4945
4.0741 3.9549 0.6920
4.0785 3.9565 0.8933
4.0912 3.9674 1.0995
999.0000 999.0000 999.0000
4.0724 3.9437 1.5074
999.0000 999.0000 999.0000
999.0000 999.0000 999.0000
2.8986 2.7972 -0.7747
1.8763 1.8094 -0.4062
1.7200 1.6575 -0.2882
1.6991 1.6368 -0.2027
1.6807 1.6179 -0.1201
1.6919 1.6276 -0.0403
1.7218 1.6628 0.0411
1.7175 1.6574 0.1229
4.1013 3.9564 0.4948
4.0964 3.9490 0.6935
4.0980 3.9477 0.8945
4.1135 3.9612 1.1018
999.0000 999.0000 999.0000
4.1071 3.9496 1.5152
999.0000 999.0000 999.0000
999.0000 999.0000 999.0000
2.8998 2.7789 -0.7725
3.5975 3.4450 -0.7822
1.7287 1.6543 -0.2886
1.7049 1.6309 -0.2027
1.6892 1.6148 -0.1203
1.6556 1.5816 -0.0393
1.7377 1.6664 0.0413
1.7305 1.6583 0.1234
4.1107 3.9379 0.4943
4.1159 3.9401 0.6945
4.1089 3.9306 0.8939
4.1301 3.9496 1.1026
999.0000 999.0000 999.0000
4.1362 3.9499 1.5209
999.0000 999.0000 999.0000
999.0000 999.0000 999.0000
2.9152 2.7742 -0.7740
3.6123 3.4352 -0.7828
1.7574 1.6701 -0.2925
1.7105 1.6249 -0.2027
999.0000 999.0000 999.0000
1.6553 1.5703 -0.0391
1.7407 1.6576 0.0413
1.7522 1.6674 0.1246
4.1245 3.9236 0.4943
4.1383 3.9339 0.6959
4.1340 3.9271 0.8964
4.1439 3.9351 1.1026
4.1066 3.8970 1.2971
4.1682 3.9527 1.5276
999.0000 999.0000 999.0000
999.0000 999.0000 999.0000
2.9249 2.7640 -0.7740
3.6214 3.4198 -0.7822
1.7835 1.6830 -0.2960
1.7234 1.6258 -0.2036
999.0000 999.0000 999.0000
999.0000 999.0000 999.0000
1.7479 1.6529 0.0413
1.7725 1.6750 0.1256
4.1439 3.9146 0.4950
4.1433 3.9113 0.6945
4.1506 3.9154 0.8970
4.1604 3.9233 1.1033
4.1599 3.9201 1.3097
4.1946 3.9500 1.5323
999.0000 999.0000 999.0000
999.0000 999.0000 999.0000
2.9460 2.7645 -0.7770
3.6276 3.4018 -0.7810
1.7922 1.6795 -0.2964
1.7364 1.6266 -0.2044
1.7017 1.5930 -0.1200
1.6633 1.5560 -0.0391
1.7522 1.6454 0.0413
1.7900 1.6798 0.1264
4.1634 3.9056 0.4957
4.1627 3.9022 0.6954
4.1685 3.9049 0.8980
4.1770 3.9115 1.1041
4.3030 4.0267 1.3506
4.2112 3.9380 1.5333
999.0000 999.0000 999.0000
999.0000 999.0000 999.0000
2.9412 2.7408 -0.7732
3.6365 3.3864 -0.7803
1.8054 1.6800 -0.2977
1.7508 1.6286 -0.2055
1.6984 1.5788 -0.1193
1.6717 1.5529 -0.0391
1.7565 1.6379 0.0412
1.8032 1.6803 0.1270
4.1886 3.9019 0.4971
4.1836 3.8945 0.6967
4.1850 3.8931 0.8986
4.2007 3.9062 1.1068
999.0000 999.0000 999.0000
4.2320 3.9299 1.5359
999.0000 999.0000 999.0000
999.0000 999.0000 999.0000
2.9566 2.7359 -0.7747
3.6512 3.3764 -0.7810
1.8185 1.6804 -0.2989
1.7506 1.6171 -0.2048
1.7186 1.5865 -0.1204
1.6742 1.5443 -0.0391
1.7225 1.5951 0.0403
1.8296 1.6930 0.1284
4.1993 3.8845 0.4968
4.2030 3.8852 0.6976
4.1928 3.8731 0.8974
4.2186 3.8955 1.1079
4.2680 3.9384 1.3308
4.2358 3.9059 1.5323
999.0000 999.0000 999.0000
999.0000 999.0000 999.0000
2.9603 2.7202 -0.7732
3.6455 3.3476 -0.7772
1.8448 1.6928 -0.3023
1.7665 1.6204 -0.2060
1.7300 1.5858 -0.1208
1.6795 1.5385 -0.0391
1.6913 1.5552 0.0394
4.2253 3.8826 0.2985
4.2128 3.8698 0.4968
4.2224 3.8759 0.6986
4.2150 3.8664 0.8992
4.2249 3.8742 1.1060
999.0000 999.0000 999.0000
4.2622 3.9028 1.5369
999.0000 999.0000 999.0000
999.0000 999.0000 999.0000
2.9785 2.7178 -0.7755
3.6572 3.3348 -0.7772
1.8625 1.6971 -0.3042
1.7678 1.6102 -0.2055
1.7356 1.5798 -0.1208
1.6879 1.5353 -0.0391
1.6938 1.5466 0.0393
4.2432 3.8719 0.2988
4.2322 3.8605 0.4975
4.2374 3.8625 0.6989
4.2314 3.8543 0.8999
4.2399 3.8607 1.1064
999.0000 999.0000 999.0000
4.2772 3.8892 1.5374
999.0000 999.0000 999.0000
999.0000 999.0000 999.0000
2.9938 2.7127 -0.7770
3.6659 3.3194 -0.7766
1.8743 1.6959 -0.3052
1.7911 1.6201 -0.2076
1.7174 1.5523 -0.1191
1.7080 1.5428 -0.0395
1.6962 1.5380 0.0393
4.2552 3.8557 0.2987
4.2531 3.8524 0.4983
4.2479 3.8450 0.6984
4.2566 3.8501 0.9024
4.2577 3.8498 1.1075
4.3220 3.9052 1.3349
4.2764 3.8613 1.5323
999.0000 999.0000 999.0000
999.0000 999.0000 999.0000
2.9974 2.6970 -0.7755
3.6804 3.3092 -0.7772
1.8920 1.7000 -0.3072
1.7923 1.6098 -0.2071
1.7495 1.5703 -0.1210
1.7251 1.5478 -0.0398
1.7105 1.5401 0.0395
4.2680 3.8416 0.2987
4.2709 3.8415 0.4989
4.2657 3.8341 0.6991
4.2664 3.8334 0.9017
4.2740 3.8376 1.1083
4.2849 3.8446 1.3191
4.2719 3.8317 1.5260
999.0000 999.0000 999.0000
999.0000 999.0000 999.0000
2.9951 2.6760 -0.7725
3.6855 3.2917 -0.7760
1.9213 1.7148 -0.3111
1.8039 1.6089 -0.2078
1.7517 1.5618 -0.1208
1.7514 1.5604 -0.0402
1.7185 1.5371 0.0395
4.2903 3.8346 0.2994
4.2873 3.8292 0.4992
4.2887 3.8292 0.7008
4.2768 3.8158 0.9011
4.3014 3.8364 1.1121
4.2932 3.8265 1.3178
4.2839 3.8154 1.5255
999.0000 999.0000 999.0000
999.0000 999.0000 999.0000
3.0127 2.6739 -0.7747
3.6969 3.2788 -0.7760
1.9555 1.7331 -0.3157
1.7898 1.5857 -0.2055
1.8080 1.6007 -0.1244
1.7688 1.5649 -0.0405
1.7209 1.5284 0.0395
4.3171 3.8316 0.3003
4.3014 3.8163 0.4994
4.3065 3.8182 0.7015
4.3019 3.8113 0.9036
4.3133 3.8201 1.1117
4.3138 3.8179 1.3200
4.2899 3.7941 1.5229
999.0000 999.0000 999.0000
999.0000 999.0000 999.0000
3.0220 2.6634 -0.7747
3.7024 3.2607 -0.7747
3.4905 3.0719 -0.5658
1.8477 1.6255 -0.2116
1.7626 1.5496 -0.1208
1.7592 1.5455 -0.0402
1.7382 1.5330 0.0398
4.3305 3.8165 0.3003
4.3207 3.8065 0.5001
4.3228 3.8057 0.7020
4.3241 3.8041 0.9055
4.3340 3.8115 1.1136
4.3374 3.8118 1.3232
4.3089 3.7842 1.5250
999.0000 999.0000 999.0000
999.0000 999.0000 999.0000
3.0402 2.6605 -0.7770
3.7167 3.2503 -0.7753
3.5281 3.0832 -0.5702
1.8473 1.6138 -0.2109
1.8974 1.6564 -0.1298
1.7797 1.5525 -0.0405
1.7646 1.5454 0.0402
4.3468 3.8040 0.3005
4.3385 3.7954 0.5006
4.3331 3.7880 0.7015
4.3462 3.7968 0.9074
4.3576 3.8054 1.1163
4.3463 3.7928 1.3218
4.3279 3.7742 1.5271
999.0000 999.0000 999.0000
999.0000 999.0000 999.0000
3.0376 2.6396 -0.7740
3.6535 3.1726 -0.7597
3.6018 3.1255 -0.5804
1.8680 1.6204 -0.2126
1.8609 1.6131 -0.1269
1.8244 1.5803 -0.0414
1.7700 1.5392 0.0402
4.3570 3.7861 0.3003
4.3577 3.7854 0.5013
4.3523 3.7781 0.7025
4.3625 3.7842 0.9080
4.3738 3.7927 1.1171
4.3595 3.7776 1.3218
4.3557 3.7717 1.5323
999.0000 999.0000 999.0000
999.0000 999.0000 999.0000
3.0409 2.6239 -0.7725
3.6197 3.1211 -0.7503
3.5946 3.0973 -0.5775
1.8857 1.6243 -0.2140
1.8544 1.5962 -0.1260
1.8117 1.5583 -0.0410
1.8117 1.5644 0.0411
4.3747 3.7748 0.3006
4.3739 3.7728 0.5016
4.3745 3.7706 0.7040
4.3726 3.7664 0.9074
4.3930 3.7826 1.1186
4.3786 3.7675 1.3236
4.3600 3.7489 1.5292
999.0000 999.0000 999.0000
999.0000 999.0000 999.0000
3.0798 2.6388 -0.7801
3.6125 3.0930 -0.7466
3.5949 3.0757 -0.5758
3.6447 3.1173 -0.4159
1.8721 1.6001 -0.1269
1.8597 1.5883 -0.0420
1.8050 1.5476 0.0408
4.3939 3.7647 0.3010
4.3840 3.7549 0.5013
4.4042 3.7695 0.7067
4.3888 3.7537 0.9080
4.4017 3.7634 1.1174
4.3932 3.7534 1.3241
4.3760 3.7362 1.5302
999.0000 999.0000 999.0000
999.0000 999.0000 999.0000
3.0740 2.6153 -0.7763
3.6203 3.0778 -0.7459
3.6026 3.0606 -0.5753
3.7695 3.2013 -0.4290
1.8655 1.5832 -0.1260
1.8774 1.5922 -0.0423
1.8104 1.5413 0.0408
4.4116 3.7532 0.3014
4.4032 3.7448 0.5020
4.4098 3.7477 0.7054
4.4094 3.7447 0.9096
4.4118 3.7454 1.1167
4.4122 3.7431 1.3259
4.3920 3.7234 1.5312
999.0000 999.0000 999.0000
999.0000 999.0000 999.0000
3.1432 2.6552 -0.7915
3.6340 3.0677 -0.7466
3.6102 3.0454 -0.5748
3.6557 3.0828 -0.4147
1.8649 1.5715 -0.1256
999.0000 999.0000 999.0000
1.8463 1.5608 0.0415
4.4323 3.7443 0.3019
4.4223 3.7345 0.5027
4.4228 3.7323 0.7054
4.4285 3.7344 0.9108
4.4323 3.7364 1.1186
4.4222 3.7252 1.3250
4.4198 3.7205 1.5364
999.0000 999.0000 999.0000
999.0000 999.0000 999.0000
3.1524 2.6442 -0.7915
3.6629 3.0703 -0.7503
3.6208 3.0328 -0.5748
3.6848 3.0854 -0.4168
1.9133 1.6009 -0.1285
999.0000 999.0000 999.0000
1.8763 1.5749 0.0421
4.4423 3.7262 0.3017
4.4491 3.7306 0.5043
4.4419 3.7219 0.7064
4.4430 3.7202 0.9111
4.4529 3.7272 1.1205
4.4382 3.7122 1.3259
4.4416 3.7124 1.5395
999.0000 999.0000 999.0000
999.0000 999.0000 999.0000
999.0000 999.0000 999.0000
999.0000 999.0000 999.0000
3.6359 3.0240 -0.5755
3.6741 3.0546 -0.4143
999.0000 999.0000 999.0000
999.0000 999.0000 999.0000
1.8817 1.5684 0.0421
4.4614 3.7158 0.3021
4.4651 3.7176 0.5046
4.4610 3.7115 0.7074
4.4575 3.7059 0.9114
4.4689 3.7141 1.1213
4.4571 3.7017 1.3277
4.4575 3.6994 1.5405
999.0000 999.0000 999.0000
999.0000 999.0000 999.0000
999.0000 999.0000 999.0000
999.0000 999.0000 999.0000
3.6618 3.0239 -0.5780
3.6894 3.0456 -0.4148
4.2108 3.4736 -0.2839
999.0000 999.0000 999.0000
1.9088 1.5796 0.0425
4.4774 3.7027 0.3023
4.4781 3.7020 0.5046
4.4800 3.7009 0.7084
4.4780 3.6966 0.9130
4.4849 3.7010 1.1220
4.4790 3.6936 1.3304
4.4719 3.6850 1.5411
999.0000 999.0000 999.0000
999.0000 999.0000 999.0000
999.0000 999.0000 999.0000
999.0000 999.0000 999.0000
3.6969 3.0312 -0.5819
3.6984 3.0314 -0.4147
4.1920 3.4336 -0.2818
4.5015 3.6845 -0.1008
1.9143 1.5730 0.0425
4.5042 3.6985 0.3032
4.4971 3.6914 0.5053
4.4929 3.6853 0.7084
4.4939 3.6835 0.9136
4.5023 3.6890 1.1232
4.4979 3.6828 1.3322
4.5027 3.6841 1.5473
999.0000 999.0000 999.0000
999.0000 999.0000 999.0000
999.0000 999.0000 999.0000
999.0000 999.0000 999.0000
3.7028 3.0146 -0.5811
3.7198 3.0273 -0.4159
4.1978 3.4139 -0.2814
999.0000 999.0000 999.0000
1.9198 1.5663 0.0425
4.5171 3.6828 0.3032
4.5193 3.6832 0.5063
4.5088 3.6721 0.7088
4.5159 3.6752 0.9155
4.5197 3.6770 1.1243
4.5138 3.6696 1.3331
4.5095 3.6635 1.5452
999.0000 999.0000 999.0000
999.0000 999.0000 999.0000
999.0000 999.0000 999.0000
999.0000 999.0000 999.0000
4.1734 3.3735 -0.6538
3.7490 3.0293 -0.4180
4.2019 3.3929 -0.2808
4.5194 3.6467 -0.1007
999.0000 999.0000 999.0000
4.5315 3.6682 0.3033
4.5352 3.6699 0.5067
4.5278 3.6613 0.7098
4.5303 3.6607 0.9158
4.5356 3.6637 1.1251
4.5296 3.6562 1.3340
4.5298 3.6538 1.5478
999.0000 999.0000 999.0000
999.0000 999.0000 999.0000
999.0000 999.0000 999.0000
999.0000 999.0000 999.0000
999.0000 999.0000 999.0000
3.7828 3.0349 -0.4206
4.2106 3.3757 -0.2806
4.5196 3.6209 -0.1004
999.0000 999.0000 999.0000
4.5365 3.6461 0.3028
4.5480 3.6540 0.5067
4.5529 3.6554 0.7118
4.5399 3.6424 0.9152
4.5514 3.6503 1.1258
4.5515 3.6477 1.3367
4.5470 3.6416 1.5493
999.0000 999.0000 999.0000
999.0000 999.0000 999.0000
999.0000 999.0000 999.0000
999.0000 999.0000 999.0000
999.0000 999.0000 999.0000
3.8557 3.0714 -0.4276
3.9301 3.1284 -0.2611
999.0000 999.0000 999.0000
4.5768 3.6549 0.1015
4.5586 3.6377 0.3034
4.5638 3.6406 0.5070
4.5719 3.6445 0.7127
4.5588 3.6314 0.9164
4.5672 3.6368 1.1266
4.5733 3.6391 1.3394
4.5627 3.6281 1.5504
999.0000 999.0000 999.0000
999.0000 999.0000 999.0000
999.0000 999.0000 999.0000
999.0000 999.0000 999.0000
999.0000 999.0000 999.0000
3.8633 3.0554 -0.4272
3.8846 3.0701 -0.2573
4.3182 3.4115 -0.0954
4.5990 3.6464 0.1017
4.5784 3.6288 0.3040
4.5859 3.6321 0.5081
4.5908 3.6334 0.7137
4.5801 3.6237 0.9183
4.5845 3.6245 1.1277
4.5982 3.6328 1.3430
4.5884 3.6237 1.5550
999.0000 999.0000 999.0000
999.0000 999.0000 999.0000
999.0000 999.0000 999.0000
999.0000 999.0000 999.0000
999.0000 999.0000 999.0000
3.8583 3.0296 -0.4255
3.8571 3.0276 -0.2548
4.5912 3.6013 -0.1012
4.6346 3.6497 0.1023
4.5973 3.6177 0.3044
4.6016 3.6185 0.5084
4.6028 3.6182 0.7137
4.6021 3.6150 0.9202
4.6104 3.6202 1.1312
4.6225 3.6271 1.3466
4.6101 3.6148 1.5581
999.0000 999.0000 999.0000
999.0000 999.0000 999.0000
999.0000 999.0000 999.0000
999.0000 999.0000 999.0000
999.0000 999.0000 999.0000
3.8510 3.0033 -0.4236
3.8550 3.0043 -0.2539
4.6069 3.5877 -0.1012
4.6363 3.6249 0.1020
4.6115 3.6029 0.3045
4.6277 3.6143 0.5100
4.6217 3.6070 0.7147
4.6178 3.6013 0.9208
4.6292 3.6089 1.1327
4.6275 3.6050 1.3443
4.6212 3.5975 1.5576
999.0000 999.0000 999.0000
999.0000 999.0000 999.0000
999.0000 999.0000 999.0000
999.0000 999.0000 999.0000
999.0000 999.0000 999.0000
3.8426 2.9752 -0.4215
3.8481 2.9774 -0.2528
4.6036 3.5594 -0.1009
4.6536 3.6123 0.1021
4.6335 3.5941 0.3051
4.6340 3.5932 0.5093
4.6437 3.5981 0.7162
4.6334 3.5876 0.9215
4.6557 3.6035 1.1361
4.6431 3.5912 1.3452
4.6322 3.5802 1.5571
999.0000 999.0000 999.0000
999.0000 999.0000 999.0000
999.0000 999.0000 999.0000
999.0000 999.0000 999.0000
999.0000 999.0000 999.0000
3.8387 2.9509 -0.4199
3.8537 2.9603 -0.2525
4.6366 3.5591 -0.1013
4.6710 3.5997 0.1022
4.6571 3.5865 0.3059
4.6466 3.5770 0.5093
4.6656 3.5891 0.7176
4.6522 3.5762 0.9227
4.6667 3.5861 1.1358
4.6618 3.5797 1.3470
4.6447 3.5640 1.5571
999.0000 999.0000 999.0000
999.0000 999.0000 999.0000
999.0000 999.0000 999.0000
999.0000 999.0000 999.0000
999.0000 999.0000 999.0000
3.8506 2.9387 -0.4201
3.8545 2.9395 -0.2518
4.6808 3.5671 -0.1020
4.6867 3.5858 0.1023
4.6744 3.5738 0.3062
4.6701 3.5693 0.5105
4.6766 3.5716 0.7174
4.6709 3.5647 0.9240
4.6776 3.5686 1.1354
4.6867 3.5729 1.3506
4.6663 3.5548 1.5602
999.0000 999.0000 999.0000
999.0000 999.0000 999.0000
999.0000 999.0000 999.0000
999.0000 999.0000 999.0000
999.0000 999.0000 999.0000
3.8529 2.9192 -0.4192
3.8599 2.9224 -0.2515
4.7012 3.5568 -0.1022
4.7055 3.5743 0.1024
4.6868 3.5575 0.3062
4.6905 3.5590 0.5114
4.6906 3.5565 0.7176
4.6928 3.5556 0.9258
4.7026 3.5617 1.1384
4.6975 3.5553 1.3502
4.6848 3.5431 1.5623
999.0000 999.0000 999.0000
999.0000 999.0000 999.0000
999.0000 999.0000 999.0000
999.0000 999.0000 999.0000
999.0000 999.0000 999.0000
3.8614 2.9045 -0.4190
3.8526 2.8957 -0.2504
4.7136 3.5404 -0.1022
4.7228 3.5615 0.1025
4.7024 3.5435 0.3064
4.7124 3.5498 0.5125
4.7061 3.5425 0.7181
4.7020 3.5368 0.9252
4.7181 3.5476 1.1392
4.7115 3.5401 1.3506
4.7065 3.5337 1.5654
999.0000 999.0000 999.0000
999.0000 999.0000 999.0000
999.0000 999.0000 999.0000
999.0000 999.0000 999.0000
999.0000 999.0000 999.0000
3.8668 2.8874 -0.4185
3.8610 2.8811 -0.2503
4.7221 3.5223 -0.1021
4.7416 3.5497 0.1027
4.7205 3.5327 0.3068
4.7264 3.5345 0.5126
4.7216 3.5284 0.7186
4.7169 3.5236 0.9258
4.7415 3.5394 1.1419
4.7363 3.5329 1.3542
4.7181 3.5181 1.5654
999.0000 999.0000 999.0000
999.0000 999.0000 999.0000
999.0000 999.0000 999.0000
999.0000 999.0000 999.0000
999.0000 999.0000 999.0000
3.8672 2.8668 -0.4175
3.8754 2.8718 -0.2506
4.7440 3.5130 -0.1023
4.7517 3.5328 0.1027
4.7392 3.5209 0.3072
4.7403 3.5191 0.5128
4.7461 3.5222 0.7205
4.7355 3.5118 0.9271
4.7501 3.5213 1.1411
4.7527 3.5207 1.3556
4.7335 3.5039 1.5664
999.0000 999.0000 999.0000
999.0000 999.0000 999.0000
999.0000 999.0000 999.0000
999.0000 999.0000 999.0000
999.0000 999.0000 999.0000
3.8783 2.8552 -0.4176
3.8741 2.8500 -0.2499
4.7692 3.5059 -0.1026
4.7640 3.5162 0.1027
4.7660 3.5151 0.3082
4.7583 3.5081 0.5135
4.7615 3.5079 0.7210
4.7541 3.4999 0.9283
4.7655 3.5070 1.1419
4.7744 3.5110 1.3583
4.7488 3.4896 1.5675
999.0000 999.0000 999.0000
999.0000 999.0000 999.0000
999.0000 999.0000 999.0000
999.0000 999.0000 999.0000
999.0000 999.0000 999.0000
3.8882 2.8416 -0.4176
3.8824 2.8353 -0.2497
4.7571 3.4715 -0.1021
4.7827 3.5043 0.1028
4.7637 3.4878 0.3072
4.7818 3.4997 0.5147
4.7722 3.4901 0.7208
4.7727 3.4880 0.9296
4.7888 3.4985 1.1445
4.7819 3.4908 1.3569
4.7672 3.4776 1.5695
999.0000 999.0000 999.0000
999.0000 999.0000 999.0000
999.0000 999.0000 999.0000
999.0000 999.0000 999.0000
999.0000 999.0000 999.0000
3.9030 2.8315 -0.4181
3.8972 2.8252 -0.2501
4.7255 3.4232 -0.1012
4.7496 3.4546 0.1018
4.7274 3.4359 0.3041
4.7730 3.4678 0.5125
4.7554 3.4525 0.7164
4.7624 3.4550 0.9252
4.7517 3.4460 1.1327
4.7341 3.4307 1.3398
4.7261 3.4224 1.5519
999.0000 999.0000 999.0000
999.0000 999.0000 999.0000
999.0000 999.0000 999.0000
999.0000 999.0000 999.0000
999.0000 999.0000 999.0000
3.9096 2.8156 -0.4178
3.9086 2.8128 -0.2502
4.6871 3.3705 -0.1001
4.7130 3.4029 0.1008
4.7005 3.3913 0.3016
4.7302 3.4115 0.5065
4.7336 3.4115 0.7113
4.7184 3.3980 0.9143
4.7334 3.4076 1.1255
4.7001 3.3811 1.3268
4.6690 3.3563 1.5292
999.0000 999.0000 999.0000
999.0000 999.0000 999.0000
999.0000 999.0000 999.0000
999.0000 999.0000 999.0000
999.0000 999.0000 999.0000
3.9210 2.8030 -0.4180
3.9233 2.8026 -0.2505
4.6500 3.3193 -0.0990
4.6712 3.3480 0.0996
4.6912 3.3598 0.3002
4.6951 3.3613 0.5015
4.7083 3.3684 0.7057
4.7013 3.3608 0.9086
4.6894 3.3511 1.1121
4.6770 3.3398 1.3169
4.6367 3.3085 1.5147
999.0000 999.0000 999.0000
999.0000 999.0000 999.0000
999.0000 999.0000 999.0000
999.0000 999.0000 999.0000
999.0000 999.0000 999.0000
3.9357 2.7928 -0.4185
3.9265 2.7843 -0.2501
4.6240 3.2764 -0.0982
4.6357 3.2980 0.0986
4.6589 3.3121 0.2974
4.6451 3.3011 0.4948
4.6391 3.2944 0.6935
4.6679 3.3124 0.8999
4.6354 3.2881 1.0965
4.6696 3.3099 1.3115
4.6277 3.2778 1.5079
999.0000 999.0000 999.0000
999.0000 999.0000 999.0000
999.0000 999.0000 999.0000
999.0000 999.0000 999.0000
999.0000 999.0000 999.0000
3.9454 2.7790 -0.4185
3.9362 2.7705 -0.2501
4.5978 3.2338 -0.0974
4.6243 3.2657 0.0981
4.6231 3.2625 0.2943
4.5979 3.2435 0.4886
4.6052 3.2462 0.6867
4.6245 3.2574 0.8892
4.6099 3.2459 1.0877
4.6365 3.2622 1.2989
4.6186 3.2472 1.5012
999.0000 999.0000 999.0000
999.0000 999.0000 999.0000
999.0000 999.0000 999.0000
999.0000 999.0000 999.0000
999.0000 999.0000 999.0000
3.9681 2.7744 -0.4199
3.9508 2.7602 -0.2504
4.5681 3.1891 -0.0965
4.6013 3.2254 0.0974
4.6001 3.2222 0.2921
4.5717 3.2011 0.4846
4.5742 3.2005 0.6803
4.6002 3.2163 0.8823
4.5826 3.2028 1.0785
4.6159 3.2237 1.2899
4.6014 3.2112 1.4919
999.0000 999.0000 999.0000
999.0000 999.0000 999.0000
999.0000 999.0000 999.0000
999.0000 999.0000 999.0000
999.0000 999.0000 999.0000
3.9794 2.7617 -0.4201
3.9686 2.7521 -0.2509
4.4871 3.1094 -0.0946
4.5747 3.1831 0.0966
4.5523 3.1651 0.2884
4.4061 3.0624 0.4657
4.2120 2.9252 0.6245
999.0000 999.0000 999.0000
4.1227 2.8600 0.9671
4.5566 3.1587 1.2701
4.5395 3.1445 1.4681
999.0000 999.0000 999.0000
999.0000 999.0000 999.0000
999.0000 999.0000 999.0000
999.0000 999.0000 999.0000
999.0000 999.0000 999.0000
3.9956 2.7523 -0.4208
3.9930 2.7484 -0.2518
4.4864 3.0858 -0.0943
4.5381 3.1341 0.0956
4.5190 3.1186 0.2855
4.0872 2.8195 0.4307
4.0963 2.8237 0.6057
4.0711 2.8043 0.7763
4.1101 2.8301 0.9617
4.5275 3.1152 1.2588
4.5218 3.1089 1.4588
999.0000 999.0000 999.0000
999.0000 999.0000 999.0000
999.0000 999.0000 999.0000
999.0000 999.0000 999.0000
999.0000 999.0000 999.0000
4.0216 2.7496 -0.4225
4.0059 2.7367 -0.2521
4.3579 2.9761 -0.0914
4.4995 3.0844 0.0945
4.5013 3.0844 0.2838
4.0707 2.7873 0.4279
4.0701 2.7848 0.6004
4.0575 2.7751 0.7719
4.0745 2.7847 0.9511
4.5029 3.0752 1.2489
4.4954 3.0688 1.4469
999.0000 999.0000 999.0000
999.0000 999.0000 999.0000
999.0000 999.0000 999.0000
999.0000 999.0000 999.0000
999.0000 999.0000 999.0000
4.0493 2.7478 -0.4244
4.0215 2.7279 -0.2525
4.3716 2.9631 -0.0915
4.4800 3.0492 0.0939
4.4740 3.0428 0.2814
4.0507 2.7529 0.4248
4.0481 2.7501 0.5958
4.0394 2.7421 0.7666
4.0529 2.7502 0.9438
4.4760 3.0351 1.2386
4.4757 3.0325 1.4370
999.0000 999.0000 999.0000
999.0000 999.0000 999.0000
999.0000 999.0000 999.0000
999.0000 999.0000 999.0000
999.0000 999.0000 999.0000
4.0832 2.7511 -0.4270
4.0509 2.7272 -0.2537
4.4035 2.9624 -0.0919
4.4475 3.0044 0.0930
4.4383 2.9959 0.2784
4.0301 2.7194 0.4216
4.0281 2.7159 0.5914
4.0113 2.7026 0.7594
4.0364 2.7185 0.9377
4.4413 2.9889 1.2260
4.4526 2.9943 1.4261
999.0000 999.0000 999.0000
999.0000 999.0000 999.0000
999.0000 999.0000 999.0000
999.0000 999.0000 999.0000
999.0000 999.0000 999.0000
4.0994 2.7412 -0.4277
4.0870 2.7308 -0.2554
4.1660 2.7815 -0.0867
4.4281 2.9688 0.0924
4.4288 2.9670 0.2772
3.9982 2.6776 0.4173
4.0062 2.6809 0.5867
3.9813 2.6622 0.7519
4.0508 2.7077 0.9388
4.4112 2.9464 1.2147
4.4051 2.9401 1.4075
999.0000 999.0000 999.0000
999.0000 999.0000 999.0000
999.0000 999.0000 999.0000
999.0000 999.0000 999.0000
999.0000 999.0000 999.0000
4.3032 2.8558 -0.4481
4.1231 2.7342 -0.2571
4.1969 2.7821 -0.0872
4.3202 2.8747 0.0899
4.4087 2.9324 0.2753
3.9793 2.6448 0.4143
3.9857 2.6471 0.5823
3.9670 2.6337 0.7475
3.9980 2.6523 0.9243
4.3922 2.9116 1.2066
4.3875 2.9073 1.3987
999.0000 999.0000 999.0000
999.0000 999.0000 999.0000
999.0000 999.0000 999.0000
999.0000 999.0000 999.0000
999.0000 999.0000 999.0000
4.2749 2.8155 -0.4441
4.3240 2.8468 -0.2691
4.2734 2.8114 -0.0886
4.1378 2.7336 0.0859
4.3955 2.9016 0.2738
3.9602 2.6123 0.4113
3.9514 2.6055 0.5760
3.9465 2.6003 0.7419
3.9674 2.6131 0.9152
4.3726 2.8777 1.1985
4.3621 2.8686 1.3873
999.0000 999.0000 999.0000
999.0000 999.0000 999.0000
999.0000 999.0000 999.0000
999.0000 999.0000 999.0000
999.0000 999.0000 999.0000
4.2463 2.7755 -0.4401
4.3439 2.8383 -0.2697
4.2999 2.8074 -0.0889
4.2360 2.7772 0.0877
4.2503 2.7845 0.2641
3.9339 2.5762 0.4077
3.9356 2.5754 0.5724
3.9308 2.5703 0.7372
3.9502 2.5820 0.9091
4.3451 2.8379 1.1882
4.3300 2.8259 1.3739
999.0000 999.0000 999.0000
999.0000 999.0000 999.0000
999.0000 999.0000 999.0000
999.0000 999.0000 999.0000
999.0000 999.0000 999.0000
4.2643 2.7661 -0.4410
4.3007 2.7876 -0.2664
4.2979 2.7847 -0.0887
4.2976 2.7962 0.0888
4.2499 2.7631 0.2635
3.9199 2.5466 0.4052
3.9262 2.5497 0.5697
3.9049 2.5339 0.7306
3.9696 2.5739 0.9114
4.2900 2.7796 1.1702
4.3091 2.7909 1.3640
999.0000 999.0000 999.0000
999.0000 999.0000 999.0000
999.0000 999.0000 999.0000
999.0000 999.0000 999.0000
999.0000 999.0000 999.0000
4.2773 2.7534 -0.4413
4.2919 2.7607 -0.2652
4.2639 2.7416 -0.0878
4.3078 2.7805 0.0888
4.3015 2.7753 0.2661
3.8902 2.5081 0.4012
3.8988 2.5117 0.5643
3.8772 2.4968 0.7237
3.9009 2.5101 0.8934
3.8784 2.4937 1.0546
4.3074 2.7685 1.3604
999.0000 999.0000 999.0000
999.0000 999.0000 999.0000
999.0000 999.0000 999.0000
999.0000 999.0000 999.0000
999.0000 999.0000 999.0000
4.2584 2.7202 -0.4384
4.2943 2.7421 -0.2648
4.2718 2.7256 -0.0877
4.2817 2.7435 0.0881
4.2910 2.7474 0.2648
3.8704 2.4762 0.3983
3.8770 2.4795 0.5599
3.8593 2.4662 0.7187
3.8745 2.4750 0.8854
3.8637 2.4662 1.0483
4.2747 2.7264 1.3469
999.0000 999.0000 999.0000
999.0000 999.0000 999.0000
999.0000 999.0000 999.0000
999.0000 999.0000 999.0000
999.0000 999.0000 999.0000
4.2510 2.6946 -0.4366
4.2735 2.7079 -0.2629
4.2610 2.6978 -0.0873
4.2760 2.7189 0.0877
4.2719 2.7141 0.2630
3.8500 2.4452 0.3953
3.8521 2.4446 0.5550
3.8411 2.4358 0.7137
3.8566 2.4446 0.8793
3.8476 2.4370 1.0415
4.2597 2.6960 1.3392
999.0000 999.0000 999.0000
999.0000 999.0000 999.0000
999.0000 999.0000 999.0000
999.0000 999.0000 999.0000
999.0000 999.0000 999.0000
4.2401 2.6671 -0.4345
4.2411 2.6656 -0.2603
4.2399 2.6638 -0.0867
4.2517 2.6826 0.0871
4.2441 2.6758 0.2607
3.8286 2.4120 0.3922
3.8254 2.4090 0.5499
3.8245 2.4066 0.7090
3.8306 2.4085 0.8713
3.8169 2.3980 1.0307
4.2396 2.6626 1.3299
999.0000 999.0000 999.0000
999.0000 999.0000 999.0000
999.0000 999.0000 999.0000
999.0000 999.0000 999.0000
999.0000 999.0000 999.0000
4.2190 2.6333 -0.4314
4.2199 2.6318 -0.2584
4.2089 2.6229 -0.0859
4.2327 2.6490 0.0865
4.2234 2.6412 0.2589
3.8134 2.3838 0.3897
3.8123 2.3813 0.5468
3.7948 2.3685 0.7018
3.8073 2.3754 0.8640
3.7938 2.3651 1.0222
4.1723 2.5990 1.3055
999.0000 999.0000 999.0000
999.0000 999.0000 999.0000
999.0000 999.0000 999.0000
999.0000 999.0000 999.0000
999.0000 999.0000 999.0000
4.1943 2.5975 -0.4279
4.1985 2.5981 -0.2566
4.1806 2.5850 -0.0851
4.2164 2.6184 0.0859
4.1987 2.6053 0.2568
3.7810 2.3453 0.3856
3.8003 2.3554 0.5438
3.7779 2.3396 0.6971
3.7973 2.3507 0.8598
3.7904 2.3447 1.0190
4.0992 2.5337 1.2797
999.0000 999.0000 999.0000
999.0000 999.0000 999.0000
999.0000 999.0000 999.0000
999.0000 999.0000 999.0000
999.0000 999.0000 999.0000
4.1643 2.5589 -0.4239
4.1820 2.5678 -0.2550
4.1623 2.5537 -0.0845
4.1881 2.5806 0.0852
4.1806 2.5739 0.2551
3.7807 2.3268 0.3847
3.8119 2.3442 0.5443
3.7927 2.3306 0.6984
999.0000 999.0000 999.0000
3.8069 2.3365 1.0213
4.0734 2.4982 1.2688
999.0000 999.0000 999.0000
999.0000 999.0000 999.0000
999.0000 999.0000 999.0000
999.0000 999.0000 999.0000
999.0000 999.0000 999.0000
4.1426 2.5257 -0.4208
4.1534 2.5303 -0.2527
4.1456 2.5235 -0.0840
4.1698 2.5492 0.0846
4.1622 2.5426 0.2534
3.8075 2.3250 0.3866
3.8235 2.3329 0.5448
3.8025 2.3183 0.6987
3.8102 2.3221 0.8591
3.8217 2.3273 1.0231
4.0590 2.4699 1.2615
999.0000 999.0000 999.0000
999.0000 999.0000 999.0000
999.0000 999.0000 999.0000
999.0000 999.0000 999.0000
999.0000 999.0000 999.0000
4.1360 2.5019 -0.4192
4.1280 2.4951 -0.2506
4.1236 2.4904 -0.0834
4.1530 2.5191 0.0841
4.1369 2.5074 0.2513
3.8275 2.3190 0.3878
3.8367 2.3227 0.5455
3.8258 2.3143 0.7015
3.8603 2.3342 0.8686
3.8248 2.3109 1.0217
4.0626 2.4527 1.2600
999.0000 999.0000 999.0000
999.0000 999.0000 999.0000
999.0000 999.0000 999.0000
999.0000 999.0000 999.0000
999.0000 999.0000 999.0000
4.1174 2.4710 -0.4164
4.1127 2.4663 -0.2491
4.0997 2.4565 -0.0827
4.1360 2.4891 0.0836
4.1080 2.4703 0.2490
3.8476 2.3128 0.3890
3.8465 2.3103 0.5458
3.8356 2.3019 0.7018
3.8499 2.3096 0.8644
3.8378 2.3005 1.0231
4.0231 2.4097 1.2450
999.0000 999.0000 999.0000
999.0000 999.0000 999.0000
999.0000 999.0000 999.0000
999.0000 999.0000 999.0000
999.0000 999.0000 999.0000
4.0900 2.4353 -0.4127
4.0938 2.4356 -0.2474
4.0734 2.4225 -0.0820
4.1155 2.4572 0.0830
4.0853 2.4382 0.2471
3.8556 2.2993 0.3890
3.8647 2.3029 0.5472
3.8534 2.2952 0.7037
3.8714 2.3042 0.8675
3.8572 2.2948 1.0262
4.0211 2.3904 1.2419
999.0000 999.0000 999.0000
999.0000 999.0000 999.0000
999.0000 999.0000 999.0000
999.0000 999.0000 999.0000
999.0000 999.0000 999.0000
4.0621 2.4004 -0.4091
4.0692 2.4027 -0.2455
3.7232 2.1975 -0.0748
4.0755 2.4150 0.0820
3.9834 2.3595 0.2404
3.8632 2.2865 0.3890
3.8826 2.2962 0.5487
3.8643 2.2845 0.7043
3.8740 2.2883 0.8663
3.8799 2.2909 1.0303
4.0606 2.3957 1.2517
999.0000 999.0000 999.0000
999.0000 999.0000 999.0000
999.0000 999.0000 999.0000
999.0000 999.0000 999.0000
999.0000 999.0000 999.0000
4.0412 2.3691 -0.4061
4.0224 2.3562 -0.2421
3.6498 2.1370 -0.0731
3.6732 2.1602 0.0737
3.6644 2.1533 0.2205
3.7145 2.1819 0.3732
3.8970 2.2873 0.5497
3.8774 2.2740 0.7053
3.8887 2.2788 0.8679
3.8979 2.2832 1.0330
4.0440 2.3669 1.2439
999.0000 999.0000 999.0000
999.0000 999.0000 999.0000
999.0000 999.0000 999.0000
999.0000 999.0000 999.0000
999.0000 999.0000 999.0000
4.0258 2.3402 -0.4037
4.0311 2.3414 -0.2421
3.6385 2.1126 -0.0727
3.6518 2.1296 0.0731
3.6412 2.1218 0.2187
3.6604 2.1321 0.3669
3.8745 2.2550 0.5453
3.8755 2.2538 0.7034
3.9038 2.2684 0.8694
3.9063 2.2689 1.0330
4.0259 2.3365 1.2357
999.0000 999.0000 999.0000
999.0000 999.0000 999.0000
999.0000 999.0000 999.0000
999.0000 999.0000 999.0000
999.0000 999.0000 999.0000
4.0115 2.3132 -0.4014
4.0184 2.3154 -0.2409
3.6182 2.0839 -0.0722
3.6353 2.1022 0.0726
3.6227 2.0941 0.2171
3.6493 2.1078 0.3650
3.6575 2.1108 0.5134
3.6626 2.1129 0.6630
3.9202 2.2597 0.8713
3.9175 2.2572 1.0339
4.0206 2.3148 1.2315
999.0000 999.0000 999.0000
999.0000 999.0000 999.0000
999.0000 999.0000 999.0000
999.0000 999.0000 999.0000
999.0000 999.0000 999.0000
3.9880 2.2821 -0.3983
4.0018 2.2882 -0.2394
3.5973 2.0560 -0.0716
3.6214 2.0782 0.0722
3.6088 2.0701 0.2158
3.6217 2.0758 0.3615
3.6559 2.0937 0.5122
3.6576 2.0939 0.6608
3.9413 2.2545 0.8743
3.9352 2.2500 1.0366
3.9880 2.2784 1.2191
999.0000 999.0000 999.0000
999.0000 999.0000 999.0000
999.0000 999.0000 999.0000
999.0000 999.0000 999.0000
999.0000 999.0000 999.0000
3.9578 2.2465 -0.3944
3.9785 2.2564 -0.2375
3.5801 2.0296 -0.0711
3.6075 2.0543 0.0718
3.5917 2.0437 0.2144
3.6025 2.0490 0.3589
3.6559 2.0777 0.5112
3.6700 2.0840 0.6618
3.9663 2.2504 0.8782
3.9464 2.2382 1.0375
3.9623 2.2454 1.2087
999.0000 999.0000 999.0000
999.0000 999.0000 999.0000
999.0000 999.0000 999.0000
999.0000 999.0000 999.0000
999.0000 999.0000 999.0000
3.9452 2.2203 -0.3923
3.9589 2.2262 -0.2358
3.5666 2.0047 -0.0707
3.5836 2.0234 0.0711
3.5818 2.0207 0.2133
3.5857 2.0221 0.3564
3.6635 2.0643 0.5112
3.6759 2.0696 0.6615
3.9728 2.2349 0.8778
3.9715 2.2333 1.0420
3.9470 2.2176 1.2015
999.0000 999.0000 999.0000
999.0000 999.0000 999.0000
999.0000 999.0000 999.0000
999.0000 999.0000 999.0000
999.0000 999.0000 999.0000
3.9285 2.1929 -0.3899
3.9335 2.1939 -0.2338
3.5456 1.9767 -0.0702
3.5736 2.0005 0.0708
3.5540 1.9887 0.2112
3.5723 1.9973 0.3543
3.6606 2.0450 0.5097
3.6969 2.0644 0.6640
3.9446 2.2009 0.8698
3.9368 2.1957 1.0307
3.9327 2.1916 1.1948
999.0000 999.0000 999.0000
999.0000 999.0000 999.0000
999.0000 999.0000 999.0000
999.0000 999.0000 999.0000
999.0000 999.0000 999.0000
3.9131 2.1673 -0.3876
3.9110 2.1644 -0.2321
3.5206 1.9475 -0.0695
3.5574 1.9760 0.0703
3.5326 1.9614 0.2096
3.5597 1.9748 0.3524
3.6605 2.0290 0.5087
3.7020 2.0512 0.6636
3.9278 2.1745 0.8644
3.9082 2.1628 1.0213
3.9197 2.1674 1.1885
999.0000 999.0000 999.0000
999.0000 999.0000 999.0000
999.0000 999.0000 999.0000
999.0000 999.0000 999.0000
999.0000 999.0000 999.0000
3.8941 2.1399 -0.3850
3.8989 2.1408 -0.2309
3.4994 1.9198 -0.0690
3.5430 1.9526 0.0699
3.5184 1.9375 0.2083
3.5348 1.9457 0.3493
3.6150 1.9882 0.5014
3.7368 2.0535 0.6687
3.9109 2.1482 0.8591
3.8918 2.1360 1.0150
3.8934 2.1351 1.1782
999.0000 999.0000 999.0000
999.0000 999.0000 999.0000
999.0000 999.0000 999.0000
999.0000 999.0000 999.0000
999.0000 999.0000 999.0000
3.8718 2.1101 -0.3821
3.8853 2.1157 -0.2297
3.4920 1.8999 -0.0687
3.5217 1.9249 0.0694
3.5111 1.9175 0.2075
3.5171 1.9200 0.3469
3.6149 1.9717 0.5005
3.8723 2.1104 0.6918
3.8873 2.1177 0.8522
3.8787 2.1112 1.0096
3.8346 2.0855 1.1580
999.0000 999.0000 999.0000
999.0000 999.0000 999.0000
999.0000 999.0000 999.0000
999.0000 999.0000 999.0000
999.0000 999.0000 999.0000
3.8581 2.0852 -0.3800
3.8681 2.0889 -0.2282
3.4845 1.8802 -0.0684
3.5020 1.8983 0.0688
3.4985 1.8948 0.2063
3.5010 1.8953 0.3446
3.6148 1.9553 0.4995
3.8519 2.0818 0.6868
3.8601 2.0854 0.8446
3.8706 2.0894 1.0055
3.8572 2.0803 1.1627
999.0000 999.0000 999.0000
999.0000 999.0000 999.0000
999.0000 999.0000 999.0000
999.0000 999.0000 999.0000
999.0000 999.0000 999.0000
3.8373 2.0567 -0.3772
3.8402 2.0565 -0.2261
3.4717 1.8576 -0.0680
3.4840 1.8728 0.0683
3.4734 1.8656 0.2044
3.4865 1.8718 0.3425
3.6234 1.9436 0.4997
3.8452 2.0609 0.6843
3.8466 2.0608 0.8400
3.8470 2.0593 0.9974
3.8388 2.0532 1.1549
999.0000 999.0000 999.0000
999.0000 999.0000 999.0000
999.0000 999.0000 999.0000
999.0000 999.0000 999.0000
999.0000 999.0000 999.0000
3.8339 2.0377 -0.3761
3.8279 2.0328 -0.2249
3.4534 1.8323 -0.0675
3.4693 1.8493 0.0679
3.4482 1.8365 0.2025
3.4667 1.8456 0.3399
3.6512 1.9422 0.5026
3.8262 2.0336 0.6796
3.8295 2.0345 0.8347
3.8025 2.0184 0.9839
3.8255 2.0289 1.1487
999.0000 999.0000 999.0000
999.0000 999.0000 999.0000
999.0000 999.0000 999.0000
999.0000 999.0000 999.0000
999.0000 999.0000 999.0000
3.8004 2.0029 -0.3721
3.7661 1.9831 -0.2209
3.4332 1.8063 -0.0670
3.4634 1.8307 0.0677
3.4369 1.8151 0.2015
3.4502 1.8214 0.3376
3.7422 1.9739 0.5143
3.8018 2.0036 0.6740
3.8175 2.0110 0.8305
3.8061 2.0033 0.9830
3.8052 2.0012 1.1404
999.0000 999.0000 999.0000
999.0000 999.0000 999.0000
999.0000 999.0000 999.0000
999.0000 999.0000 999.0000
999.0000 999.0000 999.0000
3.7707 1.9696 -0.3685
3.7659 1.9662 -0.2204
3.4218 1.7851 -0.0667
3.4449 1.8056 0.0672
3.4291 1.7957 0.2007
3.4247 1.7927 0.3345
3.8001 1.9875 0.5214
3.7913 1.9812 0.6708
3.8054 1.9877 0.8263
3.7854 1.9756 0.9758
3.7916 1.9772 1.1342
999.0000 999.0000 999.0000
999.0000 999.0000 999.0000
999.0000 999.0000 999.0000
999.0000 999.0000 999.0000
999.0000 999.0000 999.0000
3.7616 1.9482 -0.3669
3.7429 1.9368 -0.2187
3.4067 1.7621 -0.0662
3.4246 1.7797 0.0667
3.4158 1.7736 0.1995
3.4136 1.7710 0.3327
3.7330 1.9358 0.5112
3.7771 1.9570 0.6671
3.7812 1.9575 0.8194
3.7788 1.9545 0.9722
3.7710 1.9497 1.1259
999.0000 999.0000 999.0000
999.0000 999.0000 999.0000
999.0000 999.0000 999.0000
999.0000 999.0000 999.0000
999.0000 999.0000 999.0000
3.7524 1.9268 -0.3653
3.7692 1.9338 -0.2198
3.3932 1.7402 -0.0659
3.4186 1.7607 0.0664
3.3971 1.7489 0.1980
3.4038 1.7508 0.3312
3.5882 1.8441 0.4902
3.7664 1.9348 0.6640
3.7653 1.9326 0.8144
3.7523 1.9251 0.9637
3.7572 1.9260 1.1197
999.0000 999.0000 999.0000
999.0000 999.0000 999.0000
999.0000 999.0000 999.0000
999.0000 999.0000 999.0000
999.0000 999.0000 999.0000
3.7428 1.9062 -0.3638
3.7560 1.9113 -0.2187
3.4061 1.7325 -0.0660
3.4173 1.7457 0.0663
3.3833 1.7276 0.1969
3.3919 1.7305 0.3294
3.5182 1.7934 0.4797
3.7411 1.9062 0.6583
3.7630 1.9157 0.8125
3.7395 1.9029 0.9587
3.7412 1.9021 1.1130
999.0000 999.0000 999.0000
999.0000 999.0000 999.0000
999.0000 999.0000 999.0000
999.0000 999.0000 999.0000
999.0000 999.0000 999.0000
3.7245 1.8806 -0.3613
3.7391 1.8871 -0.2173
3.4104 1.7197 -0.0660
3.4338 1.7398 0.0665
3.4018 1.7221 0.1976
3.4100 1.7255 0.3306
3.5242 1.7817 0.4797
3.7195 1.8789 0.6533
3.7378 1.8873 0.8057
3.7253 1.8793 0.9533
3.7219 1.8760 1.1052
999.0000 999.0000 999.0000
999.0000 999.0000 999.0000
999.0000 999.0000 999.0000
999.0000 999.0000 999.0000
999.0000 999.0000 999.0000
3.7026 1.8533 -0.3585
3.7210 1.8609 -0.2158
3.4271 1.7132 -0.0662
3.4434 1.7296 0.0666
3.4239 1.7183 0.1986
3.4110 1.7103 0.3301
3.5517 1.7801 0.4827
3.7119 1.8588 0.6508
3.7131 1.8577 0.7988
3.7147 1.8570 0.9488
3.6973 1.8475 1.0959
999.0000 999.0000 999.0000
999.0000 999.0000 999.0000
999.0000 999.0000 999.0000
999.0000 999.0000 999.0000
999.0000 999.0000 999.0000
3.6897 1.8300 -0.3566
3.6971 1.8328 -0.2141
3.4405 1.7041 -0.0663
3.4444 1.7143 0.0665
3.4427 1.7120 0.1993
3.4276 1.7037 0.3312
3.5617 1.7688 0.4831
3.6868 1.8294 0.6452
3.6984 1.8343 0.7942
3.7002 1.8336 0.9434
3.6868 1.8253 1.0907
999.0000 999.0000 999.0000
999.0000 999.0000 999.0000
999.0000 999.0000 999.0000
999.0000 999.0000 999.0000
999.0000 999.0000 999.0000
3.6800 1.8092 -0.3550
3.6733 1.8043 -0.2123
3.4608 1.6992 -0.0666
3.4611 1.7076 0.0667
3.4450 1.6982 0.1991
3.4446 1.6964 0.3322
3.5928 1.7687 0.4866
3.6843 1.8121 0.6436
3.6840 1.8103 0.7896
3.6684 1.8011 0.9335
3.6706 1.8014 1.0840
999.0000 999.0000 999.0000
999.0000 999.0000 999.0000
999.0000 999.0000 999.0000
999.0000 999.0000 999.0000
999.0000 999.0000 999.0000
3.6681 1.7882 -0.3533
3.6664 1.7866 -0.2115
3.4664 1.6877 -0.0666
3.4757 1.7005 0.0668
3.4542 1.6885 0.1993
3.4642 1.6926 0.3336
3.6272 1.7707 0.4905
3.6211 1.7661 0.6314
3.6367 1.7729 0.7782
3.6163 1.7614 0.9187
3.6209 1.7621 1.0674
999.0000 999.0000 999.0000
999.0000 999.0000 999.0000
999.0000 999.0000 999.0000
999.0000 999.0000 999.0000
999.0000 999.0000 999.0000
3.6474 1.7624 -0.3507
3.6531 1.7636 -0.2104
3.4759 1.6773 -0.0667
3.4960 1.6953 0.0671
3.4745 1.6834 0.2001
3.4704 1.6799 0.3336
3.6191 1.7511 0.4885
3.6005 1.7406 0.6267
3.6255 1.7511 0.7744
3.6087 1.7414 0.9151
3.6062 1.7394 1.0612
999.0000 999.0000 999.0000
999.0000 999.0000 999.0000
999.0000 999.0000 999.0000
999.0000 999.0000 999.0000
999.0000 999.0000 999.0000
3.6391 1.7428 -0.3493
3.6502 1.7466 -0.2099
3.4961 1.6721 -0.0669
3.5022 1.6825 0.0671
3.4894 1.6756 0.2007
3.4798 1.6695 0.3340
3.6523 1.7507 0.4922
3.6155 1.7323 0.6283
3.6298 1.7376 0.7740
3.6288 1.7355 0.9187
3.6122 1.7268 1.0612
999.0000 999.0000 999.0000
999.0000 999.0000 999.0000
999.0000 999.0000 999.0000
999.0000 999.0000 999.0000
999.0000 999.0000 999.0000
3.6236 1.7198 -0.3472
3.6325 1.7233 -0.2085
3.5056 1.6616 -0.0670
3.5078 1.6709 0.0671
3.5042 1.6677 0.2012
3.4964 1.6625 0.3350
3.6169 1.7190 0.4866
3.6269 1.7222 0.6292
3.6214 1.7188 0.7709
3.6327 1.7226 0.9182
3.6165 1.7134 1.0607
999.0000 999.0000 999.0000
999.0000 999.0000 999.0000
999.0000 999.0000 999.0000
999.0000 999.0000 999.0000
999.0000 999.0000 999.0000
3.6079 1.6970 -0.3451
3.6132 1.6987 -0.2070
3.5295 1.6578 -0.0674
3.5263 1.6646 0.0674
3.5082 1.6546 0.2011
3.5127 1.6560 0.3360
3.6139 1.7021 0.4853
3.6168 1.7019 0.6264
3.6078 1.6969 0.7667
3.6105 1.6967 0.9110
3.6015 1.6909 1.0545
999.0000 999.0000 999.0000
999.0000 999.0000 999.0000
999.0000 999.0000 999.0000
999.0000 999.0000 999.0000
999.0000 999.0000 999.0000
3.5994 1.6777 -0.3437
3.5814 1.6678 -0.2048
3.5624 1.6582 -0.0679
3.5665 1.6684 0.0680
3.5628 1.6651 0.2039
3.5477 1.6566 0.3388
3.6054 1.6828 0.4834
3.5941 1.6759 0.6214
3.6015 1.6779 0.7641
3.5884 1.6703 0.9039
3.5951 1.6726 1.0509
999.0000 999.0000 999.0000
999.0000 999.0000 999.0000
999.0000 999.0000 999.0000
999.0000 999.0000 999.0000
999.0000 999.0000 999.0000
3.5763 1.6517 -0.3409
3.5763 1.6502 -0.2042
3.5646 1.6440 -0.0678
3.5726 1.6553 0.0680
3.5704 1.6535 0.2040
3.5751 1.6542 0.3409
3.5989 1.6637 0.4817
3.5748 1.6518 0.6170
3.5895 1.6571 0.7602
3.5766 1.6496 0.8994
3.5711 1.6463 1.0421
999.0000 999.0000 999.0000
999.0000 999.0000 999.0000
999.0000 999.0000 999.0000
999.0000 999.0000 999.0000
999.0000 999.0000 999.0000
3.5639 1.6309 -0.3392
3.5709 1.6334 -0.2036
3.5503 1.6224 -0.0674
3.4636 1.5909 0.0658
3.5671 1.6369 0.2035
3.5591 1.6318 0.3388
3.5809 1.6410 0.4785
3.5590 1.6294 0.6133
3.5647 1.6313 0.7538
3.5501 1.6231 0.8913
3.5557 1.6242 1.0358
999.0000 999.0000 999.0000
999.0000 999.0000 999.0000
999.0000 999.0000 999.0000
999.0000 999.0000 999.0000
999.0000 999.0000 999.0000
3.5493 1.6100 -0.3373
3.5529 1.6102 -0.2022
3.5374 1.6024 -0.0671
3.5583 1.6193 0.0675
3.5361 1.6085 0.2014
3.5500 1.6133 0.3374
3.5144 1.5957 0.4688
3.5158 1.5956 0.6048
3.5042 1.5888 0.7396
3.5149 1.5922 0.8809
3.5153 1.5917 1.0224
999.0000 999.0000 999.0000
999.0000 999.0000 999.0000
999.0000 999.0000 999.0000
999.0000 999.0000 999.0000
999.0000 999.0000 999.0000
3.5222 1.5829 -0.3341
3.5327 1.5869 -0.2008
3.4682 1.5565 -0.0657
3.5509 1.6018 0.0673
3.5071 1.5806 0.1994
3.5011 1.5764 0.3322
3.5088 1.5791 0.4673
3.5015 1.5744 0.6014
3.5345 1.5885 0.7450
3.5006 1.5718 0.8760
3.4979 1.5691 1.0157
999.0000 999.0000 999.0000
999.0000 999.0000 999.0000
999.0000 999.0000 999.0000
999.0000 999.0000 999.0000
999.0000 999.0000 999.0000
3.5004 1.5585 -0.3315
3.4142 1.5194 -0.1936
3.4992 1.5557 -0.0661
3.5363 1.5804 0.0669
3.4707 1.5496 0.1970
3.4863 1.5559 0.3303
3.4998 1.5604 0.4654
3.4763 1.5485 0.5961
3.4970 1.5570 0.7358
3.4847 1.5500 0.8706
3.4840 1.5483 1.0100
999.0000 999.0000 999.0000
999.0000 999.0000 999.0000
999.0000 999.0000 999.0000
999.0000 999.0000 999.0000
999.0000 999.0000 999.0000
3.5131 1.5495 -0.3322
3.5020 1.5431 -0.1984
3.4771 1.5314 -0.0656
3.5272 1.5616 0.0666
3.4706 1.5351 0.1967
3.4829 1.5390 0.3294
3.4852 1.5393 0.4627
3.4673 1.5300 0.5936
3.4973 1.5418 0.7347
3.4833 1.5341 0.8688
3.4699 1.5275 1.0043
999.0000 999.0000 999.0000
999.0000 999.0000 999.0000
999.0000 999.0000 999.0000
999.0000 999.0000 999.0000
999.0000 999.0000 999.0000
3.4930 1.5260 -0.3298
3.4945 1.5253 -0.1976
3.4825 1.5193 -0.0656
3.4945 1.5318 0.0659
3.4631 1.5173 0.1959
3.4627 1.5157 0.3270
3.4799 1.5218 0.4612
3.4545 1.5099 0.5904
3.4703 1.5154 0.7278
3.4725 1.5149 0.8647
3.4522 1.5054 0.9975
999.0000 999.0000 999.0000
999.0000 999.0000 999.0000
999.0000 999.0000 999.0000
999.0000 999.0000 999.0000
3.5890 1.5546 -0.4751
3.4891 1.5099 -0.3289
3.4317 1.4843 -0.1937
3.4731 1.5008 -0.0653
3.4775 1.5106 0.0655
3.4574 1.5005 0.1953
3.4533 1.4973 0.3256
3.4631 1.5008 0.4583
3.4452 1.4916 0.5879
3.4518 1.4937 0.7228
3.4614 1.4965 0.8607
3.4503 1.4902 0.9955
999.0000 999.0000 999.0000
999.0000 999.0000 999.0000
999.0000 999.0000 999.0000
999.0000 999.0000 999.0000
999.0000 999.0000 999.0000
3.4758 1.4904 -0.3272
3.4754 1.4889 -0.1959
3.4636 1.4823 -0.0651
3.4681 1.4921 0.0652
3.4333 1.4758 0.1936
3.4436 1.4795 0.3242
3.4428 1.4777 0.4549
3.4359 1.4733 0.5854
3.4444 1.4763 0.7202
3.4433 1.4744 0.8548
3.4307 1.4676 0.9882
999.0000 999.0000 999.0000
999.0000 999.0000 999.0000
999.0000 999.0000 999.0000
999.0000 999.0000 999.0000
999.0000 999.0000 999.0000
3.4700 1.4736 -0.3261
3.4696 1.4720 -0.1953
3.4356 1.4562 -0.0644
3.4751 1.4808 0.0652
3.4200 1.4559 0.1926
3.4341 1.4612 0.3228
3.4369 1.4610 0.4534
3.4265 1.4552 0.5829
3.4369 1.4589 0.7175
3.4233 1.4517 0.8485
3.4322 1.4541 0.9872
999.0000 999.0000 999.0000
999.0000 999.0000 999.0000
999.0000 999.0000 999.0000
999.0000 999.0000 999.0000
999.0000 999.0000 999.0000
3.4402 1.4468 -0.3228
3.4434 1.4468 -0.1935
3.3079 1.3885 -0.0619
3.4655 1.4625 0.0650
3.4140 1.4393 0.1920
3.4190 1.4407 0.3209
3.4274 1.4428 0.4515
3.4078 1.4332 0.5789
3.4293 1.4415 0.7148
3.4086 1.4315 0.8436
3.4123 1.4316 0.9799
999.0000 999.0000 999.0000
999.0000 999.0000 999.0000
999.0000 999.0000 999.0000
999.0000 999.0000 999.0000
999.0000 999.0000 999.0000
3.4305 1.4287 -0.3214
3.4318 1.4278 -0.1926
3.2942 1.3692 -0.0616
3.4429 1.4388 0.0644
3.4006 1.4197 0.1909
3.4019 1.4196 0.3188
3.4232 1.4271 0.4502
3.4019 1.4168 0.5770
3.4144 1.4213 0.7106
3.4010 1.4143 0.8404
3.3995 1.4123 0.9748
999.0000 999.0000 999.0000
999.0000 999.0000 999.0000
999.0000 999.0000 999.0000
999.0000 999.0000 999.0000
999.0000 999.0000 999.0000
3.4226 1.4114 -0.3202
3.4220 1.4098 -0.1918
3.2803 1.3507 -0.0612
3.4331 1.4206 0.0642
3.3979 1.4054 0.1905
3.3958 1.4031 0.3177
3.4080 1.4068 0.4476
3.3883 1.3979 0.5739
3.4030 1.4026 0.7072
3.3969 1.3987 0.8382
3.3898 1.3951 0.9706
999.0000 999.0000 999.0000
999.0000 999.0000 999.0000
999.0000 999.0000 999.0000
999.0000 999.0000 999.0000
999.0000 999.0000 999.0000
3.4109 1.3927 -0.3186
3.4045 1.3893 -0.1905
3.2739 1.3347 -0.0610
3.4156 1.4001 0.0637
3.3751 1.3822 0.1889
3.3878 1.3860 0.3165
3.3924 1.3872 0.4449
3.3858 1.3831 0.5726
3.3949 1.3861 0.7045
3.3781 1.3779 0.8323
3.3822 1.3782 0.9670
999.0000 999.0000 999.0000
999.0000 999.0000 999.0000
999.0000 999.0000 999.0000
999.0000 999.0000 999.0000
999.0000 999.0000 999.0000
3.4026 1.3761 -0.3174
3.3889 1.3692 -0.1894
3.2600 1.3158 -0.0607
3.3797 1.3717 0.0630
3.3521 1.3591 0.1874
3.3739 1.3673 0.3148
3.3844 1.3701 0.4432
3.3687 1.3624 0.5688
3.3833 1.3676 0.7011
3.3720 1.3617 0.8296
3.3726 1.3606 0.9629
999.0000 999.0000 999.0000
999.0000 999.0000 999.0000
999.0000 999.0000 999.0000
999.0000 999.0000 999.0000
999.0000 999.0000 999.0000
3.3833 1.3546 -0.3151
3.3844 1.3537 -0.1888
3.2608 1.3029 -0.0606
3.3437 1.3435 0.0622
3.3494 1.3444 0.1869
3.3620 1.3488 0.3132
3.3707 1.3509 0.4407
3.3587 1.3448 0.5663
3.3771 1.3514 0.6988
3.3623 1.3441 0.8260
3.3522 1.3388 0.9556
999.0000 999.0000 999.0000
999.0000 999.0000 999.0000
999.0000 999.0000 999.0000
999.0000 999.0000 999.0000
999.0000 999.0000 999.0000
3.3713 1.3362 -0.3136
3.3706 1.3345 -0.1878
3.2635 1.2908 -0.0606
3.3093 1.3163 0.0615
3.3411 1.3276 0.1862
3.3482 1.3297 0.3115
3.3699 1.3370 0.4400
3.3487 1.3272 0.5638
3.3690 1.3346 0.6961
3.3525 1.3267 0.8224
3.3389 1.3199 0.9504
999.0000 999.0000 999.0000
999.0000 999.0000 999.0000
999.0000 999.0000 999.0000
999.0000 999.0000 999.0000
999.0000 999.0000 999.0000
3.3630 1.3193 -0.3123
3.3492 1.3125 -0.1863
3.2847 1.2859 -0.0609
3.2897 1.2952 0.0610
3.3383 1.3130 0.1858
3.3380 1.3122 0.3101
3.3450 1.3136 0.4361
3.3423 1.3112 0.5620
3.3426 1.3106 0.6896
3.3516 1.3128 0.8211
3.3327 1.3041 0.9473
999.0000 999.0000 999.0000
999.0000 999.0000 999.0000
999.0000 999.0000 999.0000
999.0000 999.0000 999.0000
999.0000 999.0000 999.0000
3.3602 1.3047 -0.3116
3.3072 1.2828 -0.1837
3.3041 1.2803 -0.0612
3.3203 1.2939 0.0615
3.3168 1.2912 0.1843
3.3240 1.2933 0.3083
3.3292 1.2940 0.4334
3.3358 1.2952 0.5601
3.3325 1.2933 0.6866
3.3307 1.2912 0.8148
3.3228 1.2868 0.9432
999.0000 999.0000 999.0000
999.0000 999.0000 999.0000
999.0000 999.0000 999.0000
999.0000 999.0000 999.0000
999.0000 999.0000 999.0000
3.3498 1.2872 -0.3102
3.3452 1.2841 -0.1856
3.3086 1.2687 -0.0612
3.3341 1.2859 0.0617
3.3026 1.2724 0.1833
3.3247 1.2802 0.3080
3.3188 1.2766 0.4315
3.3071 1.2708 0.5545
3.3315 1.2795 0.6854
3.3061 1.2684 0.8076
3.3165 1.2711 0.9401
999.0000 999.0000 999.0000
999.0000 999.0000 999.0000
999.0000 999.0000 999.0000
999.0000 999.0000 999.0000
999.0000 999.0000 999.0000
3.3319 1.2670 -0.3082
3.3179 1.2604 -0.1838
3.2999 1.2522 -0.0609
3.3516 1.2792 0.0619
3.2921 1.2552 0.1824
3.2994 1.2573 0.3052
3.3159 1.2622 0.4305
3.3005 1.2550 0.5526
3.3268 1.2644 0.6835
3.2996 1.2527 0.8049
3.2992 1.2513 0.9339
999.0000 999.0000 999.0000
999.0000 999.0000 999.0000
999.0000 999.0000 999.0000
999.0000 999.0000 999.0000
3.2907 1.2389 -0.4266
3.3140 1.2470 -0.3061
3.1690 1.1911 -0.1752
3.2593 1.2238 -0.0601
3.3280 1.2569 0.0614
3.2853 1.2394 0.1818
3.2814 1.2373 0.3031
3.3128 1.2478 0.4295
3.2919 1.2386 0.5504
3.2981 1.2403 0.6767
3.2912 1.2364 0.8017
3.2855 1.2330 0.9287
999.0000 999.0000 999.0000
999.0000 999.0000 999.0000
999.0000 999.0000 999.0000
999.0000 999.0000 999.0000
3.2950 1.2274 -0.4266
3.2828 1.2222 -0.3028
3.3004 1.2274 -0.1823
3.1548 1.1720 -0.0580
3.3062 1.2355 0.0609
3.2746 1.2224 0.1810
3.2708 1.2203 0.3017
3.2967 1.2287 0.4268
3.2814 1.2216 0.5479
3.2914 1.2247 0.6744
3.2790 1.2188 0.7977
3.2716 1.2148 0.9235
999.0000 999.0000 999.0000
999.0000 999.0000 999.0000
999.0000 999.0000 999.0000
999.0000 999.0000 999.0000
3.2993 1.2159 -0.4266
3.2235 1.1873 -0.2968
3.2841 1.2083 -0.1812
3.2790 1.2051 -0.0603
3.2992 1.2198 0.0607
3.2582 1.2033 0.1798
3.2638 1.2047 0.3007
3.2879 1.2123 0.4251
3.2708 1.2047 0.5454
3.2790 1.2071 0.6709
3.2577 1.1979 0.7914
3.2614 1.1980 0.9194
999.0000 999.0000 999.0000
999.0000 999.0000 999.0000
999.0000 999.0000 999.0000
999.0000 999.0000 999.0000
999.0000 999.0000 999.0000
3.2875 1.1979 -0.3024
3.2751 1.1921 -0.1805
3.1836 1.1575 -0.0584
3.2884 1.2027 0.0604
3.2437 1.1851 0.1788
3.2605 1.1906 0.3000
3.2828 1.1974 0.4239
3.2601 1.1879 0.5429
3.2740 1.1923 0.6690
3.2527 1.1832 0.7891
3.2583 1.1840 0.9173
999.0000 999.0000 999.0000
999.0000 999.0000 999.0000
999.0000 999.0000 999.0000
999.0000 999.0000 999.0000
3.3077 1.1928 -0.4266
3.2654 1.1769 -0.3000
3.2680 1.1766 -0.1798
3.1575 1.1355 -0.0579
3.2888 1.1899 0.0603
3.2328 1.1683 0.1779
3.2459 1.1724 0.2982
3.2739 1.1813 0.4222
3.2420 1.1685 0.5391
3.2708 1.1782 0.6675
3.2494 1.1692 0.7873
3.2424 1.1654 0.9116
999.0000 999.0000 999.0000
999.0000 999.0000 999.0000
999.0000 999.0000 999.0000
999.0000 999.0000 999.0000
3.3119 1.1813 -0.4266
3.2470 1.1575 -0.2979
3.2608 1.1611 -0.1792
3.1502 1.1205 -0.0577
3.2779 1.1730 0.0601
3.2199 1.1510 0.1770
3.2312 1.1544 0.2965
3.2537 1.1612 0.4190
3.2386 1.1545 0.5379
3.2619 1.1622 0.6648
3.2388 1.1527 0.7837
3.2319 1.1489 0.9075
999.0000 999.0000 999.0000
999.0000 999.0000 999.0000
999.0000 999.0000 999.0000
999.0000 999.0000 999.0000
3.3160 1.1697 -0.4266
3.2473 1.1448 -0.2975
3.2554 1.1464 -0.1787
3.1446 1.1062 -0.0575
3.2613 1.1542 0.0597
3.2201 1.1384 0.1768
3.2202 1.1378 0.2951
3.2353 1.1419 0.4161
3.2277 1.1379 0.5354
3.2437 1.1429 0.6603
3.2391 1.1400 0.7828
3.2286 1.1351 0.9054
999.0000 999.0000 999.0000
999.0000 999.0000 999.0000
999.0000 999.0000 999.0000
999.0000 999.0000 999.0000
3.3198 1.1587 -0.4266
3.2437 1.1309 -0.2968
3.2387 1.1278 -0.1775
3.1596 1.0997 -0.0577
3.2558 1.1395 0.0595
3.2050 1.1211 0.1757
3.2204 1.1252 0.2947
3.2205 1.1240 0.4137
3.2184 1.1226 0.5332
3.2403 1.1290 0.6587
3.2263 1.1235 0.7788
3.2141 1.1180 0.9002
999.0000 999.0000 999.0000
999.0000 999.0000 999.0000
999.0000 999.0000 999.0000
999.0000 999.0000 999.0000
3.3237 1.1477 -0.4266
3.2343 1.1155 -0.2956
3.2310 1.1132 -0.1769
3.1613 1.0885 -0.0577
3.2483 1.1248 0.0593
3.1880 1.1033 0.1746
3.2109 1.1100 0.2935
3.2092 1.1081 0.4117
3.2034 1.1055 0.5301
